# 3D point list with one line of data per point:
# POINT3D_ID, X, Y, Z, R, G, B, ERROR, TRACK[] as (IMAGE_ID, POINT2D_IDX)
# Number of points: 582
35626 -5.50000008117 2.41089011396 -2.8572362292 95 108 55 0.962575710519 117 7317
35627 -5.00266757551 2.20553773579 -2.0203368291 55 68 22 2.22800626048 117 7331
35628 -4.08591384041 2.22886389056 -1.89389405572 106 114 57 1.65323553747 117 6685
35629 -2.60275451711 2.20216688747 -1.86320713314 67 80 32 0.71571136728 155 8247
35630 -3.34858976429 2.15527743613 -1.51837427963 118 123 58 1.25114511458 117 6722
35631 -4.088740337 1.9984430329 -1.04210949136 72 82 30 1.94798668281 117 6720
35633 1.14713221054 1.33082441513 -0.724421069637 6 10 9 0.955282489149 117 7458
35634 1.55061342737 2.17124596255 -2.04051518771 106 104 66 0.977522842097 117 7904
35635 -2.93850406207 1.66682370689 0.189143699345 79 92 39 2.41447417234 117 6861
35648 -6.44981134753 3.56540116455 -9.7169516422 80 73 56 1.5208126935 78 11886
35651 -5.91472069015 4.30222176995 -10.6788905116 100 108 58 1.9146484317 155 8402
35654 -4.7991479865 4.20478767497 -9.92211151126 119 117 60 0.99471541263 155 8407
35655 -8.72739104827 3.21805738207 -6.0951389002 60 65 31 1.7950169259 117 8098
35656 -7.29688641094 3.07294890582 -5.3591660199 63 70 28 0.642620734335 117 7788
35657 -7.15392021549 2.91239475851 -4.74177894763 48 59 19 1.39720141315 117 7792
35658 2.66836610332 3.55415582712 -7.92856062451 113 109 69 1.06373817874 155 8174
35660 -3.41515152991 3.12221614891 -5.54207692972 129 136 69 0.605022722967 117 7799
35661 -4.70750781647 2.90509206162 -4.70788753058 118 121 52 2.46426264322 117 7800
35662 -6.28595090123 2.55636262035 -3.47985500169 110 114 55 1.60149690307 117 7801
35663 -6.12163999228 2.3989776096 -2.89909579818 50 58 17 1.37537362727 117 7802
35669 -3.56573787616 1.91343920994 -0.628893000192 67 77 27 1.36304293505 117 7873
35675 -8.63194070713 3.11185104692 -5.69726659525 72 83 36 1.78387360351 117 8264
35676 -4.23300619182 2.1307136829 -1.53064115991 112 116 62 1.82070682199 117 8129
35684 -5.72118046576 2.47099492839 -3.21259037923 54 65 31 1.01274908689 117 8271
35686 -2.70570337338 1.7162448137 -0.0327167531207 58 71 25 1.49148869331 117 8296
35701 0.652852230253 2.90019022196 -4.90800756322 100 102 58 2.24941143059 155 4344
35702 0.0314168782931 3.85052890216 -8.80862609327 88 95 46 0.980773317605 117 3647 155 371
35703 0.0569891360804 3.7878708275 -8.42155676181 98 97 57 1.49980867843 117 336 155 4157
35704 -2.20798744634 2.70701782158 -3.95773916123 77 90 49 1.56134859577 155 6318 117 3839
35705 2.06137740553 2.09383733055 -1.57641614074 76 71 62 0.945933894196 117 5880 155 4778
35706 2.64918773908 2.66057126833 -4.06223783714 69 67 45 0.933742162557 155 4429
35707 1.10502187243 4.11108257047 -9.90013377741 135 135 96 1.5673661385 117 5437 155 6142
35740 -6.23091265185 3.11448690602 -9.96099393055 28 32 18 1.01726190134 78 4488
35749 -7.72209787808 3.08381181287 -8.82223223368 34 45 32 0.848128599559 78 4562
35752 -7.76120690033 3.04907096791 -8.64733700738 34 41 27 1.00720375876 78 4565
35758 -7.73218301579 3.11643584003 -8.68955831894 48 53 46 0.643457528809 78 4572
35765 -7.66736138189 3.20732237438 -8.60129406827 48 56 43 0.542540727432 78 7913
35767 -6.31413037691 4.3234167341 -12.2513935343 27 38 21 1.09326685399 155 3949
35768 -7.5712727131 3.13703234791 -8.29224751273 10 16 6 1.18737072495 78 4628
35770 -6.19216677976 4.35021820302 -11.9652381708 38 47 26 0.796952063416 155 6081
35775 -6.38394998114 4.31260610784 -11.5728123757 22 28 13 1.02278131555 155 3991
35784 -6.12121941424 4.2251683579 -10.8660316031 43 52 21 1.75130939601 155 189
35785 -6.30985148515 3.85690338716 -9.57186880509 67 69 56 1.16055326181 78 4752
35786 -5.76655782188 4.25384351555 -10.7597481992 105 116 74 1.50343890566 155 223
35793 -7.27928313555 3.44174592593 -8.00035925358 76 90 64 0.481428998925 117 12
35796 -2.23341289338 4.56939569496 -11.6722087986 103 107 61 1.0161841897 117 70
35797 -7.16025066437 3.46993653079 -7.82069457598 60 71 29 0.797747409808 117 3488
35799 -5.14716221037 4.0061793755 -9.26462222556 64 75 35 0.28652023624 117 3522
35800 0.628507146533 0.831849763537 -1.01030644655 62 70 74 1.68613527592 155 839
35805 1.84493990751 2.08705787699 -1.60748546754 96 97 66 0.541671317832 117 1549
35806 1.52653000428 1.84775231893 -0.423558559731 185 185 173 1.89477797728 117 4536
35807 2.19077820899 1.75326437338 -0.341458158465 100 92 93 1.68836875361 155 2038
35809 0.157571846917 0.936936992004 1.62449566398 18 20 15 0.474273889568 155 3184
35811 1.26617920462 1.38608241972 1.3824996175 214 210 199 1.13549414932 117 3205
35812 1.26617920462 1.38608241972 1.3824996175 214 210 199 1.13549414932 117 3206
35813 0.396133386715 1.16551868997 1.94651060698 21 23 3 0.575305779404 117 3326
35814 1.19221473122 1.27551209836 1.80300714098 79 79 77 0.833857459527 155 3763
35815 1.43058886202 1.26248144848 1.7801207436 129 128 126 0.919208597746 155 3704
35818 -9.04162760456 2.46373194427 -11.8145050723 9 16 8 1.12606813622 78 3973
35823 -8.66063637946 2.69348561157 -11.3759634009 8 15 8 1.78259332655 78 7663
35834 -8.24357032484 3.01251665191 -11.0651155987 51 59 48 1.65105404538 78 7769
35836 -8.43768918067 3.14020222109 -11.1475133252 4 11 3 0.864976488565 78 7804
35837 -8.19589556673 3.18893445968 -11.3205859717 35 43 32 1.17956241619 78 7801
35839 -8.08770298493 3.22491942652 -11.4341643358 11 17 6 1.71334711424 78 7810
35850 -6.30666275851 3.15795248417 -9.79062154424 22 26 11 1.07837023268 78 7869
35851 -7.87016018893 2.94705789435 -8.83155245186 13 19 5 1.41095766817 78 7861
35853 -6.27457624572 3.27014074627 -9.79462122875 16 19 10 1.01739928441 78 9908
35862 -7.81205517706 3.20707911101 -8.78149525234 5 10 4 2.14468777241 78 9918
35867 -7.39557703343 3.45328190712 -9.30879776491 48 56 35 0.543155981654 78 7917
35871 -7.52200004342 3.39210624564 -8.74815754635 2 7 0 1.21907553845 78 4660
35879 -7.26620049729 3.49599874977 -8.0184769261 23 31 10 1.28198312627 117 3472
35880 -5.6133714227 4.15216162978 -9.92051666965 72 79 46 1.05808150409 117 3493
35883 -6.51884962305 3.67276788561 -8.1585576262 59 71 33 1.39792777511 117 5367
35886 -5.14516855535 2.96166223162 -4.95836956981 68 85 33 0.625687551215 117 387
35887 0.919355216856 1.05810043834 0.460208456029 123 123 121 1.44342873225 155 5060
35897 -6.25040610429 2.45752304797 -10.0395587042 62 59 52 1.14654431658 78 11830
35899 -8.17604859828 3.01780788704 -11.2897611504 58 66 54 0.727643273213 78 11065
35909 -7.77292861413 3.05696791391 -8.76780163874 3 8 1 0.964758044627 78 9909
35910 -7.7353052518 2.9898136196 -8.37073026114 58 69 53 1.20718626862 78 9911
35915 -7.62857458721 3.23441104052 -8.63361808025 44 55 41 0.734470366448 78 9926
35918 -7.70676421426 3.2699113531 -8.43776965278 11 17 7 1.84996924467 78 9933
35922 -7.46038776997 3.34068828742 -8.41243846911 50 62 48 1.07802217328 78 9937 78 11890
35926 -6.69185740342 3.71781170547 -8.47398088669 88 99 59 1.12476233687 117 6519
35929 1.41727137793 3.87671782178 -9.27264736299 134 140 89 0.780238138073 117 7790
35930 0.565322584421 3.64020106668 -8.17859908828 97 106 59 0.73721428158 117 6568
35931 0.561428758728 3.6730151002 -8.25943133169 97 106 59 1.6040543807 117 6567
35932 0.248322454067 0.566562970188 0.002512987844 106 107 102 1.85251189708 117 5654
35938 2.00330112375 1.89706320899 -0.827862875697 97 93 92 1.64051945428 117 7599
35939 1.44535750788 1.81447971226 -0.261157140328 67 62 56 0.950170247231 117 7012
35940 0.913540050136 1.5676842074 0.747811418497 33 31 19 0.769484033799 117 7091
35947 -8.28380533411 3.12491080116 -11.3817348098 8 13 6 0.876709189459 78 9852
35957 -7.42525710807 3.43589865623 -9.45345987068 4 6 1 2.05311826444 78 11883
35959 -6.18852855558 3.7148909808 -9.87960460148 11 14 7 1.65778913353 78 11130
35960 0.0493744284588 0.136227676757 0.711491314741 14 19 15 0.565356356393 117 7337
35963 -5.92338743243 4.24118490022 -10.8642567961 53 64 32 1.77481207274 155 7803
35968 0.446896639988 4.43439823746 -11.3820654823 107 119 73 1.46761284492 117 7782
35975 0.458473199035 1.16414600601 -0.890235234473 116 124 76 1.29124681728 155 7330
35977 1.78768425251 1.77280230378 -0.201792221611 102 98 95 1.1917978262 117 8000
35979 0.365685228639 1.17926063031 1.97437988516 61 56 33 1.94309633173 117 7234
35999 0.557931095927 0.801536687032 -0.766591507489 12 17 13 0.281717106949 155 7279
36000 0.887900351587 3.59510801409 -8.0373516215 89 91 47 1.88749488029 117 7796
36003 1.25514981652 1.26017461447 1.85058199389 94 90 89 2.02858052748 155 7776
36007 -7.74259735365 2.99499283337 -8.97595765757 26 32 18 1.72491974332 78 12379
36014 -7.68594100647 3.35781410916 -7.22641544054 48 58 23 1.64890980719 117 8095
36015 0.258267303269 0.532046943712 -0.0288343974173 230 232 232 1.92817335675 117 7836
36021 -8.73475547141 2.65975051854 -11.8375662355 13 16 7 1.29323931258 78 12343
36025 0.218658450518 0.592091718261 0.179796567888 11 13 10 1.86800114589 117 8283
36028 1.38540272316 1.58919974136 -0.643269962168 210 208 196 0.44647422577 117 8305
36036 -0.0437932703079 0.438184143569 0.729605225295 220 222 221 1.2543969092 117 8382
36038 1.97485799473 2.07411589856 -1.48406514806 110 107 88 1.55580065164 117 8439
36039 1.33679263118 1.68697314065 -0.53596921323 11 12 7 1.85680898147 155 8444
36044 0.0669373992473 0.16979961681 0.742723142131 253 254 253 1.50451659207 155 6411 117 6683
36046 0.0748332396159 0.15975792093 0.720985675603 12 13 10 2.52352600664 155 6404 117 7347
36052 0.510310279136 0.823150435562 -0.669027777663 118 128 75 1.94858280606 117 7346
36061 1.34257462334 1.13778481734 -0.703731522198 0 0 0 1.22611521359 155 8523
36063 -0.706470574978 3.74118058789 -8.14683854149 117 121 71 0.919180883862 117 332
36064 -6.17134554233 2.32137212183 -2.48222238508 106 108 61 0.604999038872 117 545
36066 -5.47973383543 2.25661036859 -2.35346985438 74 77 35 0.911164627272 117 3819
36071 0.536872793683 0.799238508447 -0.693348155143 10 10 8 1.15992257904 117 740
36075 -2.6332036335 1.69989558662 0.217246537709 61 70 19 1.25633759061 117 4249
36076 -1.96359090883 1.77945452597 -0.100062701639 62 71 26 1.19465239301 117 1463
36077 -2.39427762515 1.51053784188 0.895842200804 61 74 21 1.06423610039 117 1707
36078 -2.28734725402 1.47525266348 1.05195437852 106 118 68 0.422368500769 117 1805
36081 1.01899375882 1.13022909235 0.178478360008 16 20 19 1.71402292499 117 1657
36082 1.0261214564 1.13320383045 0.193490455467 113 110 103 0.878490790609 117 1679
36083 1.88191704143 2.00701281163 -1.17165394262 149 136 122 0.21921109737 117 1695
36084 0.902272610783 1.05445203367 0.493804705394 135 130 124 1.38595017954 117 4438
36085 0.902442154331 1.05323947097 0.494144914957 135 130 124 0.951012556055 117 4439
36086 0.988293607578 1.12179893876 0.400902540262 100 99 96 1.19550524815 117 1830
36088 0.891062294325 1.04306517373 0.608630804189 11 10 6 1.0865286834 117 1909
36089 1.25726900785 1.82273824866 -0.37444161394 108 91 69 1.20480336295 117 1934
36090 0.889395222324 1.03816535886 0.625671077783 11 10 6 0.0586695338778 117 1914
36094 1.6095394184 1.8556176357 -0.513092753924 196 189 169 1.19239154344 117 1945
36095 1.61023914854 1.85516456694 -0.512355045326 196 189 169 1.12230168838 117 1946
36097 0.716160781059 0.948912091235 0.892401133151 169 167 168 1.31919228901 117 1996
36101 -1.09061464966 1.34737711614 1.55756163819 186 171 138 1.66930582967 117 4736
36102 1.57602562649 1.82197463621 -0.326172938241 202 187 158 0.908202966788 117 2024
36106 1.23182480854 1.76063607207 -0.0648478111576 96 90 68 1.80947785117 117 2096
36107 1.29254768537 1.77821090263 -0.105231159938 214 207 201 0.27053651891 117 2093
36109 1.63581652194 1.77071917225 -0.148728082055 90 80 71 1.3395889617 117 2135
36114 1.29408274261 1.68203475347 0.31725437829 71 61 51 1.14824853847 117 2340
36115 1.03198975928 1.60822991695 0.545289828391 144 134 107 0.623652168968 117 2405
36123 1.6694403268 1.60958967958 0.406353683926 109 100 91 0.670416997309 117 2463
36124 0.609707544424 1.31536856127 1.31186195324 60 70 43 1.42757461346 117 2731
36125 1.04193718967 1.55305946604 0.887882903284 78 65 56 0.152075474646 117 2652
36127 1.82459882052 1.58260246736 0.454657464173 113 103 94 0.537712542835 117 4810
36129 1.35909563164 1.49878437959 0.923847221313 233 219 200 0.542058817824 117 2779
36130 0.859874716438 1.4594286614 1.25768254523 153 148 126 0.71790528924 117 2905
36131 1.8158234339 1.53048054718 0.656802607745 105 96 86 0.615074112157 117 2680
36133 1.78188226819 1.51608530855 0.721171128849 123 113 104 0.364034656299 117 2730
36136 0.761328837146 1.38406055768 1.58778450957 67 63 54 0.650991465821 117 5226
36137 0.817213430043 1.38942169301 1.57196993201 199 183 158 1.23366072355 117 5242
36143 -1.01629404589 3.68627340387 -7.87924716523 127 131 80 0.617882549645 117 343
36144 -2.70994101415 3.04142640482 -5.16543198926 116 124 64 0.892172389789 117 481
36151 0.634969520621 2.55183990073 -3.54552436477 77 85 34 0.553269050027 117 3994
36152 -2.23155525384 2.15280756521 -1.58287472807 121 125 64 0.527052123393 117 4052
36155 0.114983813385 0.854941945154 0.385805082234 6 6 4 0.381157627653 117 5826
36156 -1.96492189633 1.61092891361 0.557667262088 73 82 24 0.502381954168 117 4358
36157 -2.08893104205 1.57006203931 0.697480229954 65 68 21 1.05323227602 117 5920
36158 1.57740543683 2.05536798073 -1.49609669787 102 91 59 1.03751481669 117 1537
36161 1.038447094 1.14644136973 0.18379788966 13 14 8 1.61255428843 117 1688
36162 0.979967074421 1.10177937346 0.303488868201 15 15 15 1.23072727646 117 4392
36164 1.7168185301 1.89304994872 -0.68446060684 243 243 241 0.214711802033 117 1892
36167 1.54644550837 1.81036545492 -0.274759672679 187 168 138 0.448445342984 117 2047
36170 -0.875248113853 1.25201538803 1.84802264324 33 36 7 0.372182526708 117 6238
36171 1.4922325729 1.67923941055 0.227634965622 162 103 92 0.825356664044 117 4698
36172 -0.84789745497 1.23133095809 2.03105492368 72 78 34 1.62496886912 117 6309
36175 1.26869057712 1.55417346949 0.782012272888 98 87 75 1.0272690615 117 4870
36176 -0.192473554572 1.17135083238 1.94018993269 112 100 67 0.808255142989 117 6359
36179 1.91686455618 1.55013235011 0.55426820654 108 99 92 1.84465924975 117 4871
36180 -0.324439175154 1.15269485569 2.16630590623 69 72 39 1.68738713283 117 6443
36181 -0.315115765531 1.14414438068 2.18966257139 14 17 0 1.17537710077 117 6452
36182 0.210917260288 1.15937918676 1.89018096307 75 76 44 0.600545173475 117 6395
36183 1.52199930261 1.43298629839 1.08698749699 243 242 238 0.696111244034 117 5083
36185 0.758589047191 1.37737873704 1.62664691655 88 83 77 1.0981234636 117 5266
36186 1.37863191495 1.37201304901 1.3897648284 136 129 121 0.610101459076 117 6454
36187 -5.60758847092 2.95731336406 -4.83126077477 64 74 22 0.629316622662 117 388
36189 -4.81576037521 2.35700103152 -2.48242207252 68 81 28 1.15448184208 117 3853
36195 -3.84954475025 1.85575447423 -0.432568913258 59 68 21 1.5504489576 117 6773
36197 0.277291951484 0.623420030405 0.0636730129271 10 12 9 0.106203809643 117 4022
36198 -2.05679340213 1.58357546932 0.592133749784 114 121 54 0.555054023086 117 5905
36200 -2.03161553994 1.5712940343 0.664753503907 75 89 28 1.37443528322 117 5917
36203 1.70190242016 1.92384523569 -0.8736507229 161 150 128 2.0408843681 117 4417
36204 1.4819035178 1.84113424788 -0.573842253406 77 72 49 1.55903071258 117 4470
36208 1.10681546248 1.67036224411 0.349073610086 59 52 36 0.735026068334 117 6114
36210 1.55096787246 1.6870963898 0.166828156511 139 124 108 1.26916372619 117 6106
36211 0.665706012628 0.905253756685 1.35408494596 7 7 7 2.09304290395 117 7070
36213 1.14335869629 1.62390113767 0.565886546497 105 95 86 1.31730223589 117 6167
36215 1.03860627094 1.5564785592 0.888476763423 80 67 58 0.510458274647 117 6241
36218 -2.88392386595 3.12517484925 -5.65130967801 125 130 73 1.36978719114 117 6587
36222 0.224817523523 0.623750565693 0.180555184337 7 7 5 1.2834042891 117 6731
36224 -0.176446942636 0.27300666103 1.3224836559 14 16 13 1.41419295399 117 7907
36225 1.3488533505 1.230303471 -0.655221650878 11 12 7 1.0631786902 117 6848
36231 1.28712424866 1.44151168016 1.17472586585 62 55 47 1.06251091258 117 7169
36234 0.551561745679 0.850145718575 -0.68721274191 4 6 1 0.841289728161 117 7350
36235 0.551561745679 0.850145718575 -0.68721274191 4 6 1 0.841289728161 117 7349
36238 0.342953676884 0.743460796456 -0.246511561036 96 96 98 1.22747424284 117 7366
36239 0.342965791102 0.743581483302 -0.246825577634 96 96 98 1.12693151762 117 7367
36240 0.317101716407 0.73245898163 -0.191385169764 106 106 92 1.86173091095 117 7371
36243 -2.54163867718 1.57270252207 0.663513406349 108 116 57 1.77288472922 117 7522
36245 1.54449926174 1.83522579003 -0.372656220412 73 63 54 1.38221953977 117 7616
36250 -3.54050496218 2.12678356721 -1.48944009469 117 123 61 1.02761364498 117 7380
36251 -3.82653875634 1.90808155399 -0.61516317637 68 80 27 0.85907425273 117 7869
36260 0.818637942317 1.4871337186 1.118322478 116 105 83 1.37796135209 117 8343
36262 1.1314969299 1.43802392703 1.2385833603 113 108 100 0.78670409815 117 8356
36264 -1.31992626453 1.31984224607 1.66514849592 71 64 18 0.805715953263 117 8454
36266 -0.889858259725 1.30748153417 1.52850111486 134 137 87 1.20237242282 117 8456
36267 -1.21787567336 1.3556534992 1.45912720882 82 91 40 0.318844317969 117 8483
36271 1.82771762498 1.7626108364 -0.206291777438 51 48 44 1.5952947601 117 2134
36272 1.49127969241 1.56951795809 0.621302410297 113 103 94 1.30967437328 117 4834
36274 2.1706256722 1.66121351962 0.0518757784396 101 88 80 1.72242279261 155 6665
36275 0.989416338515 1.10596371528 0.279012041699 17 20 19 1.65567702821 155 4997 117 5924
36276 1.89821494326 1.41530085961 1.05725855822 89 85 83 1.39246836317 155 2916 117 6388
36279 0.280235444784 0.399315473042 -0.100252490596 24 23 11 1.46213148366 155 4470
36284 0.584576982367 1.21130374087 -0.78262700503 7 7 5 0.0585587526633 117 8507
36337 -5.89804289428 4.42617397822 -12.183166113 103 114 82 0.26177715238 155 70
36340 -6.10645891943 4.36598828637 -11.6416461769 22 30 7 1.51422033053 155 133
36344 -2.25312493748 4.92898151684 -13.2938883607 92 87 55 2.00731339366 155 3984
36352 -3.20616276047 4.09271915046 -9.37883526873 70 70 46 0.480731618704 155 4122
36357 -3.48864884892 2.68023762596 -3.94244702487 116 132 93 0.703584504194 117 542
36358 -1.4617363807 1.92752543785 -0.663093089874 110 108 60 1.69277119799 155 1960
36376 -6.2613996437 2.72550277506 -9.90683828831 32 29 20 1.28835704169 78 7756
36405 -5.55463272973 4.21889730375 -10.4656943347 76 86 52 1.22621022982 155 4067
36413 1.3453107521 1.40919857547 -0.638891794029 54 53 48 1.20892217438 155 1529
36456 -6.12684540967 4.29934780574 -11.4970268532 33 41 20 2.14632390829 155 7131
36461 -3.71031445841 4.20736866204 -10.1248533443 82 95 41 0.914312103916 155 7169
36463 -3.36853911163 3.93814540095 -8.5907962547 114 125 69 1.74471262872 155 7191
36464 0.225470008038 0.61984347489 0.0146070590895 227 228 230 1.76961101513 117 3993
36504 1.35311054051 1.43221447152 -0.603495633184 9 9 7 1.00161083085 155 7405
36521 1.33934528681 1.68473996247 -0.563137068913 7 8 6 1.74319452692 155 6545
36543 -3.40268180961 2.53930963543 -3.1418384566 100 113 59 1.36725030098 155 8518
36550 0.750875507722 1.23320927044 -0.870732895865 5 7 6 1.76421912904 117 8288
36551 -1.65532164422 1.82659160476 -0.311342382642 97 108 59 1.43872971167 155 8535
36561 -3.44318413474 3.09668210857 -5.3709670673 100 102 60 1.0924107428 155 4318 117 438
36562 -4.04661954195 4.19945871901 -9.82901778992 47 51 25 2.17322378672 155 6146
36563 -2.07639671456 2.29576718325 -2.23123365608 66 76 44 2.02983865262 155 7353
36564 0.776756692722 1.13182496285 -0.903323993694 7 10 11 1.65202029462 155 8658
36572 1.13819676474 1.01656970856 -0.75474243848 104 112 74 1.28506003798 117 8142
36629 -5.95695680162 3.78140050537 -9.75059993797 0 0 0 0.235962812896 155 195
36631 -5.63851282036 4.27070210658 -10.4880410936 156 153 134 0.990949042037 155 4076
36678 -6.27064495343 3.95231448952 -9.97190761152 97 101 78 1.53780529841 155 7151
36729 4.04951686541 4.38072924059 -11.6824809347 0 0 0 2.06180280686 155 8395
36741 -5.16234613533 4.05443105077 -9.3440835506 78 90 50 2.08871340881 155 8171
36780 0.284886313633 1.1739650512 1.89734796879 52 53 31 1.83630979345 117 6429 155 6007
36783 1.25179068676 1.32497184346 -0.67045549429 10 12 10 1.88939133383 117 4200
36791 4.16936977683 4.35409493471 -11.5007561832 110 114 75 1.61131369257 155 6112
36792 0.257762975032 0.528609066054 -0.0238030779832 138 138 136 1.55195816567 155 8213
36813 -14.6803781131 1.54128406119 -14.9776528519 18 21 14 0.882207701367 78 3431
36818 -10.558624072 1.42742799867 -8.75639744101 104 116 106 0.733816065156 78 3801
36824 -11.0127107023 1.6062335408 -8.26209173752 21 27 14 1.64906622157 78 3951
36841 -10.1958416698 1.98628326926 -8.51057796462 69 76 68 1.10213172354 78 4111
36842 -8.46943268254 2.60953799832 -11.723758494 87 97 91 0.951690097602 78 7613
36854 -8.16830957579 2.78395595835 -11.3357363958 99 107 99 0.754976392241 78 4180
36857 -8.52148225103 2.91095480805 -11.4205597145 53 61 48 1.24583386522 78 7715
36865 -10.2148793267 2.40474965255 -8.04006147131 60 68 55 1.01448256114 78 4379
36872 -6.26268236999 2.79687523972 -9.89640182633 40 37 28 1.16631986265 78 4347
36906 -7.82778786497 2.98639877407 -8.53099051372 8 14 4 0.992027490544 78 7889
36916 -6.23754519784 3.53582755694 -9.88501187543 71 71 61 1.17868923218 78 9930
36927 -7.47152118131 3.51647986036 -8.91930544162 54 66 46 0.481775209776 78 7937
36929 -7.48615789154 3.51963258792 -8.79547444461 52 63 47 0.680523981549 78 7947
36938 -8.3298779213 3.2323566804 -6.95424043421 61 68 52 1.06901813929 117 48
36939 -9.27938013757 3.06472065167 -6.14055997951 50 57 41 1.94595817882 117 74
36940 -9.28259258012 3.06341266786 -6.14273762229 50 57 41 1.68364901195 117 75
36942 -7.87856206809 3.39385123896 -7.48775284901 44 57 30 1.58266821935 117 47
36945 -7.13475221747 3.45732156664 -7.64971433843 51 63 23 0.55399061376 117 3504
36947 -8.43220822716 3.22225746002 -6.06343217767 47 57 21 0.61108666379 117 174
36948 -1.71401591475 4.76097086929 -12.3545332576 105 113 56 1.70096399577 117 3496
36949 -4.03507895252 4.21552342597 -10.1256387669 76 71 45 0.71949650021 117 3518
36951 -0.805736074211 4.7763794445 -12.4367477594 94 102 53 0.407084426064 117 3511
36952 -1.84799626658 4.4533359185 -11.0732044682 125 135 82 0.814751905135 117 3540
36953 -4.07040919103 4.05186584797 -9.07634717259 83 94 45 0.985472389725 117 5404
36954 0.111749097849 4.34507041097 -10.7767240573 77 89 43 1.00504476273 117 5410
36955 0.858588409797 4.28103939421 -10.6803308606 74 85 45 0.965855073008 117 3591
36957 -3.40238648512 1.93498312429 -0.666123482526 198 209 207 0.878578531821 117 1136
36958 1.43484738392 2.35903275987 -2.92521076418 75 81 41 1.48010030028 117 1093
36959 1.72561226688 2.35078589627 -2.91441816819 52 57 34 0.904107741159 117 1127
36961 1.28244736285 1.66269827679 -0.581389627855 4 4 2 0.739548747321 117 1661
36965 1.19496524628 1.77787930807 -0.431379396876 4 7 0 0.764555983287 117 1846
36966 0.609588790791 0.890181475834 1.17175746492 134 140 152 1.76137836998 117 2178
36967 1.29701986955 1.81738004814 -0.414957430089 17 20 11 0.215593588972 117 1913
36984 -10.2758359363 1.74478437442 -9.52096591064 24 32 16 1.20996335667 78 7511
36992 -8.78387878229 2.51802632072 -11.8461061897 52 58 46 0.777794146883 78 7580
36994 -10.0221719761 1.95475290076 -8.59558791239 94 104 95 1.13340285067 78 4082
37000 -10.7684331689 1.98105423303 -8.31586876548 47 52 46 1.29564600301 78 4130
37001 -11.0591161178 1.97329037736 -8.23076505671 6 13 5 1.5157760314 78 4136
37002 -11.0726740129 1.97630696655 -8.23953132506 6 13 5 1.75311323687 78 4135
37021 -8.1956877861 3.18886124209 -11.3203658421 42 47 40 1.26748687153 78 7802
37022 -8.41475558452 3.1212242112 -10.9122604114 57 63 49 0.857554342735 78 9870
37025 -6.21022926592 2.85212251961 -10.0077963111 35 35 23 0.88014144958 78 9863
37042 -7.84574222329 2.94473701999 -8.70733844321 50 57 41 0.904221399868 78 7872
37077 -9.0958265781 3.11450755907 -6.50590550343 52 55 44 1.40330311032 117 3484
37080 -8.70480336378 3.20471395073 -6.56344639106 3 8 1 1.29442241429 117 5356
37083 -9.40053594402 3.17014442814 -6.03923724285 11 17 5 1.19622243287 117 3543
37084 -8.87333951622 3.20785496788 -6.13831830619 50 59 28 1.0143685619 117 3554
37085 -4.45516993087 4.26174266668 -10.1604179346 118 126 79 0.959075295259 117 5365
37086 -3.11777165742 4.35118840864 -10.7106416123 83 97 44 1.37930064886 117 5361
37089 0.0781640100251 4.74865616173 -12.3255760412 92 103 57 1.45911813261 117 6529
37090 -0.336258292595 4.53522105754 -11.4114401594 117 124 72 0.923216126661 117 5387
37091 -5.15608331992 3.41707247137 -6.68065022135 76 85 37 1.71742848583 117 5432
37092 0.928509720844 3.60271750535 -8.09338914961 85 92 51 1.96395712467 117 3674
37094 -6.05670465191 2.23420946171 -2.29553026008 71 84 38 1.67494951025 117 3797
37095 0.297655932417 3.4588217196 -7.24422636482 134 141 99 0.62251088853 117 5485
37096 -4.74177725595 2.66041310261 -3.70665682267 88 101 47 1.22237432675 117 3773
37100 -2.64531438935 1.68332373013 0.1348477927 57 74 20 1.08093304259 117 4224
37101 1.17939682155 1.75347449426 -0.456481221451 8 11 2 0.776883576172 117 1807
37102 1.79541522341 1.95817029224 -0.962101454118 93 86 76 0.562777339968 117 4412
37103 1.23102143576 1.83264264377 -0.439397098128 52 49 40 1.11989403269 117 4486
37104 1.40841498761 1.82624361548 -0.483787586128 88 80 67 0.690789516601 117 4487
37117 -10.6544915414 1.37617884052 -8.68621747271 107 116 111 1.07064689042 78 7458
37123 -9.18178687377 2.3605803916 -11.9551546831 15 21 11 2.20099573363 78 10993
37131 -10.0363990388 2.16162313755 -9.12062034006 67 77 70 1.59241136943 78 7668
37132 -8.6612035072 2.75137067525 -11.2037698929 9 15 6 1.60221841126 78 11043
37133 -10.3611759338 2.21335185901 -8.12579951057 57 66 47 2.04306054471 78 11060
37142 -8.12701909578 3.26667295043 -11.0114897616 63 71 60 0.950834206248 78 9879
37153 -6.46611458001 3.20575693369 -9.84106853223 79 75 63 1.08086251886 78 9901
37172 -7.35225892368 3.34315286985 -8.11855986468 73 87 62 2.45746160585 78 7950
37178 -8.66315546858 3.20896138355 -6.17825530815 63 71 39 1.01769181276 117 6537
37179 -8.55972321141 3.06334372801 -5.26352494889 58 71 28 1.65014165623 117 5424
37180 1.16539900578 4.3717833678 -11.0643544543 67 79 39 1.07215630108 117 6540
37181 0.406170209845 3.8021026244 -8.69536240291 124 131 84 1.63645735293 117 7289
37182 -6.15778675566 2.56362582927 -3.4437467802 96 109 50 1.4015110939 117 6597
37184 -6.19451859483 2.30665366106 -2.53801435472 59 72 26 1.5334626417 117 6613
37185 -6.19451859483 2.30665366106 -2.53801435472 59 72 26 1.5334626417 117 6612
37186 -5.43264347221 2.37424529961 -2.66623338982 64 80 33 0.762864325228 117 6632
37187 1.39441717477 3.08992045381 -6.01122034851 114 121 77 1.10831459429 117 5550
37188 -3.54947825668 2.17339276922 -1.58310017079 117 129 82 1.20337921189 117 5692
37189 -3.42890235002 1.92516332743 -0.665331487879 57 69 24 1.32670077265 117 5745
37190 -3.42890235002 1.92516332743 -0.665331487879 57 69 24 1.32670077265 117 5746
37202 -10.9649364061 1.72408768499 -8.72782531453 52 60 49 1.06038718935 78 11002
37208 -8.68197799804 2.64475920465 -11.5980039559 8 11 4 1.76191456757 78 9761
37209 -10.9165311033 2.07998026834 -8.24352634328 8 13 6 1.43552274792 78 9810
37211 -10.1889816745 2.23309485648 -8.62156435097 34 39 33 1.85935206605 78 9820
37236 -8.36447118996 3.21717682209 -6.95641300605 46 54 35 1.29370196327 117 7256
37237 -8.6547829613 3.08178111811 -6.36359651508 45 50 28 1.51155152843 117 6520
37240 0.269724672298 0.666556584591 0.0243143229644 141 146 110 2.40920862164 117 6724
37241 0.269724672298 0.666556584591 0.0243143229644 141 146 110 2.40920862164 117 6723
37242 1.87793254646 2.18318930974 -2.13047107392 90 89 73 2.07440231647 117 6859
37254 -9.18720563362 2.42780200674 -11.6915704196 22 28 16 1.6436855024 78 12333
37256 -10.8830917667 1.90011592445 -8.41902767896 12 14 9 1.2207601981 78 11024
37276 0.0477119165072 0.189073821771 0.751831875043 24 28 26 1.72718734014 117 7843
37280 -3.54646922502 2.16915379983 -1.67884910584 111 122 63 1.16405260755 117 7368
37284 -2.42184889108 1.76559060166 -0.130562645811 86 99 54 0.64053873454 117 7466
37285 2.0709036351 2.27036012027 -2.46747839121 89 87 66 0.434302246496 117 7449
37292 -10.0940269412 2.07536376833 -8.57444987835 7 12 5 2.38046135022 78 12354
37310 0.0908484488063 3.96474814104 -9.30084973975 125 128 81 0.857666515544 117 8103
37313 -5.48789219906 2.16890051115 -1.99333873883 49 64 13 0.582077707165 117 8111
37314 -5.54657522848 2.14086970526 -1.85404476647 43 54 14 1.26458447451 117 7821
37315 -5.26900133598 2.22361848215 -2.07675920209 67 84 35 1.97618696136 117 8116
37321 1.94059948038 2.03299306767 -1.34583398722 173 175 161 0.937378026259 117 8175
37333 -8.83831752834 3.19382425717 -6.36829519239 22 28 16 1.50148556322 117 8097
37335 -5.72478283485 2.47261431618 -3.21766105658 48 62 27 0.62661993382 117 8272
37336 0.176688683429 0.658454209049 0.465264397613 11 13 12 0.758495116923 117 8156
37337 -3.07335274871 1.96756320156 -0.908813028595 71 85 29 0.270249676532 117 8289
37342 -11.1896220269 1.83798172781 -8.443621623 10 15 8 1.87322755654 78 12342
37349 -1.47900024985 1.54573351056 0.715407790224 72 84 37 0.271949358002 117 8391
37353 -8.69804270604 3.11409334261 -5.50149480836 88 102 61 1.07623419672 117 8422
37354 -5.09465337849 2.22839973067 -2.1178665457 83 97 48 0.773325211351 117 8428
37364 -2.80315471665 1.78594680416 -0.301222284911 125 149 114 3.08732502104 117 8473
37368 1.66333835177 1.9316815389 -0.88617098977 61 60 41 2.48667379902 155 6542 117 6959
37372 0.258990982674 0.60390249019 0.05771552294 14 17 17 1.1262281226 117 5684
37373 -6.34273708095 4.28068161289 -11.3457047685 51 58 32 1.25015447751 155 6101
37374 -0.190451600156 0.247046050381 1.3322789205 141 145 153 1.80449297181 155 6602
37375 0.587071734054 0.82364308371 -0.853862211637 12 13 9 1.08162975945 117 7328 155 6313
37381 1.5163562465 2.30851478742 -2.48315318389 87 95 64 2.13208699495 117 7887
37394 -8.88345217076 2.5895168651 -11.7464211573 13 17 10 1.03296475724 78 4036
37433 -6.26178570382 3.07402072968 -9.823252732 76 87 55 1.16411120097 78 4484
37445 0.134015581601 0.16114082425 0.756967272329 37 40 34 2.50576517473 117 834
37454 -9.77085520075 3.0408852378 -5.62291323708 40 52 28 1.4176626347 117 3542
37456 -8.85675685823 3.09406799527 -5.8283767412 41 49 25 1.63819499622 117 3555
37457 -8.95118209044 2.98975245061 -5.0231056998 50 62 19 1.34184625826 117 5420
37458 -0.871414752617 4.72855656041 -12.4269189876 118 124 76 1.54900485219 117 69
37468 1.86322724354 1.49682533157 0.769030374406 96 96 96 1.38948545321 117 4979
37469 1.66238166461 1.4499505758 0.971992396983 173 168 154 1.08759480446 117 2900
37470 1.68723875464 1.44342000216 0.977310394618 199 183 158 1.29191427587 117 2918
37477 -10.1293262105 1.85407810269 -8.94071758137 33 41 18 1.20111071822 78 3983
37504 0.421587068577 4.25662390779 -10.4868510321 70 81 41 2.32448892 117 5415
37506 0.847202544101 3.50022548738 -7.381121699 112 117 76 0.39110370026 117 3734
37507 -1.94537474205 1.59341205731 0.545795324348 112 123 55 1.41486277321 117 5907
37533 0.78977034336 1.26201471281 -0.90469685366 102 115 61 1.71061654468 117 4074
37536 1.78628320468 2.02590242725 -1.22356685075 30 28 15 1.17473285664 117 5910
37538 0.819302298724 1.48524355832 0.849541617986 35 36 22 1.12907740687 117 4782
37541 1.75114758157 1.40975206207 1.13102626627 114 114 116 1.42508347383 117 7195
37549 -8.48156247704 2.9839688174 -11.4711763951 9 17 6 1.80911695748 78 7737
37558 -8.35723770356 3.21481382061 -6.94884053948 46 53 37 0.950764466628 117 7257
37560 -8.53122728541 3.20463550979 -6.24084601891 64 70 37 0.577116009714 117 7267
37572 -9.11297731844 2.27685550585 -11.9158453247 14 21 10 1.20023538917 78 12328
37582 -9.40697868963 3.06720165432 -5.46578295481 73 83 48 1.99306559594 117 7783
37583 0.29830390105 4.4774136172 -11.4743456968 104 116 74 2.15274518156 117 7779
37587 0.413562908708 1.25429774843 -0.915447142573 115 125 72 0.759400119988 117 7399
37594 -8.69550023664 2.64874567843 -11.7923965214 8 14 7 1.63680138406 78 12344
37605 -0.154451865168 0.362703234182 1.29520063465 108 119 59 0.169585453138 117 7922
37610 0.630119776044 1.34891910685 1.34543409263 40 52 28 1.46908096628 117 7718
37615 0.441885446474 3.99915170396 -9.5030541593 118 123 82 2.55074269982 117 8267
37619 1.01510029083 3.44597596612 -7.21585224824 112 120 73 1.53315817299 117 8426
37622 0.779292467867 1.32319867932 -0.842080790037 14 17 17 1.13970005976 155 8632
37623 1.22588649795 1.17434509525 -0.693561300737 111 116 74 1.40674434054 155 8631
37628 -7.40915216714 3.35206861288 -6.95841090687 23 28 10 1.70656433023 117 7265
37629 -7.7761180923 3.26854372573 -6.99945068593 8 11 6 2.56419061999 117 8096
37636 -2.33326987779 1.48635608375 0.933523763161 78 93 38 0.527501944408 117 8181
37638 -8.82222111128 3.03391411476 -5.36497892051 79 92 48 2.22315625706 117 8265
37644 -13.3729364348 -1.30937701188 -12.5445883685 84 81 74 1.6133088121 78 9186
37660 -10.270702211 1.39708104232 -8.82435489271 121 125 110 1.66773120633 78 3772
37662 -10.2566678837 1.68375517024 -9.54077983693 119 123 109 0.836584778335 78 3847
37665 -8.63688447848 2.43228542642 -11.8360976448 19 23 9 1.31271459683 78 9708
37669 -10.9108576349 1.77640007036 -8.33903933162 17 20 11 1.88701253763 78 7611
37673 -10.1369137049 1.98595517656 -8.61886080432 21 25 11 1.0221231012 78 4093
37703 -7.36377847095 3.30921346842 -9.26351182067 14 20 8 1.33921211582 78 4597
37712 -6.31957208899 3.65382430679 -9.62672259626 32 30 17 1.02110057198 78 7943
37714 -7.60854893213 3.36277438201 -8.28403897986 24 30 15 1.31196078061 78 9938
37716 -7.08601699871 3.83577775865 -9.57994158412 18 22 5 1.17193632001 78 9947
37717 -7.44740693063 3.36091276827 -8.08080175959 86 98 62 0.705158406409 78 7952
37721 -9.08298447735 3.11154013107 -6.49573631091 57 61 45 1.29422512242 117 3485
37722 -6.82416137015 3.63028949229 -8.4207398912 55 63 24 0.972073830474 117 36
37723 -7.73838451482 3.25803335305 -7.14892012271 12 17 3 1.50372214818 117 3490
37725 -6.60855367656 3.64733793689 -8.23604794953 67 76 29 0.697776149954 117 73
37730 -9.61085690126 3.10370043909 -5.75042443561 47 57 30 0.684278374966 117 127
37731 -4.45210378076 4.09969737099 -9.52596760229 64 66 33 0.546691146859 117 113
37732 -4.45210378076 4.09969737099 -9.52596760229 64 66 33 0.546691146859 117 114
37734 -8.09661591728 3.21932023196 -5.72716625599 136 129 75 0.781468307818 117 3620
37765 -1.03042110664 3.00473517538 -5.28382566994 138 140 90 0.966760654774 117 539
37781 -1.54591273101 2.55580140036 -3.39462762608 78 83 25 0.449879392849 117 771
37805 0.300792084077 0.782528067857 -0.111428022034 246 247 245 1.1231893363 117 1015
37830 -8.62614372345 2.35980338508 -11.8100903727 112 116 101 1.08896714343 78 7535
37874 -7.414769975 3.54868935944 -8.92360761976 3 8 2 2.22369649299 78 7945
37883 -3.3365555186 4.59116641275 -11.7484217801 189 172 145 0.520462880986 117 3478
37884 -2.78085521478 4.50781739138 -11.3532909055 83 95 39 0.505064933523 117 3506
37885 -3.41260310498 4.30936499496 -10.5232188919 76 86 33 1.15225241292 117 5364
37886 -2.03055434943 4.35563537921 -10.6983363238 121 129 72 0.726896618845 117 3548
37887 -1.95250772746 4.33328704892 -10.4944304838 94 99 41 0.728476094138 117 151
37888 -4.82762722657 3.35019116345 -6.50291248437 119 125 59 1.49011182507 117 3640
37895 -3.25540553923 3.1906412435 -5.74981865729 122 131 62 1.20655615878 117 3712
37925 0.161331298345 0.598920064327 0.30506584051 162 157 154 2.19699013239 117 4051
37952 -8.94622588016 2.49031009112 -11.8933840368 13 16 5 1.066483187 78 11004
37958 -10.1740971916 2.38967447792 -8.92363091894 8 10 5 1.86098404302 78 9835
37982 -7.07452281934 3.4722351709 -7.79736720957 81 88 36 1.417076163 117 6517
37986 -4.82198995521 4.02462506979 -9.23738686504 82 86 36 0.46419934102 117 5381
37990 -3.29457423578 4.19315985312 -9.82895352422 112 119 64 0.82024651912 117 6538
37991 -8.98613603436 3.0622244811 -5.20927474641 56 64 17 1.30108064003 117 5419
37992 -8.84643581482 3.06226462345 -5.2141180097 61 69 22 0.484015837371 117 6551
38068 -8.43020887852 2.67045961905 -9.07738688567 23 25 12 1.8740638782 78 9866
38077 -5.97742066403 3.89038386216 -9.12241043138 50 55 25 1.09968925553 117 6516
38081 -4.43999273529 3.90748291359 -8.57451701826 109 114 56 1.39279000318 117 7276
38083 -8.26786947877 2.87704185683 -4.48945579209 60 67 16 1.13995270429 117 7285
38101 0.474228700197 0.794258684103 -0.547935390262 130 126 76 1.64416518838 117 6682
38126 -7.64790363266 3.08119918488 -9.23823602668 18 21 7 1.41403538802 78 12383
38129 -7.20948912918 3.56242914002 -9.77151059604 9 12 3 1.66150560623 78 11885
38134 -4.52135923608 4.28690569787 -10.0967322463 129 126 75 1.49513789396 117 7262
38141 0.675922530192 0.354023163887 0.0613334402635 68 80 32 1.15097331229 117 3876
38148 0.511529431602 0.823884967662 -0.66817701011 139 131 75 1.96655597833 117 7345
38162 -13.7473964605 1.55691044157 -15.1799253687 32 34 23 1.69269990129 78 12292
38164 -10.5486118558 1.56103848349 -8.92393463112 49 54 32 2.33912505043 78 12325
38177 -2.64689109051 4.25708857936 -9.91715573162 117 122 66 0.839604798548 117 7785
38225 -8.3040247299 3.28625218154 -6.67146046118 73 86 60 1.04041060454 117 3533
38285 0.198726189977 0.60405337169 0.28205351229 59 67 70 0.0804870167626 117 1055
38290 1.07037578252 1.16100752375 0.0613188955457 112 119 125 1.04325191623 117 1616
38299 0.857655283669 1.03495326265 0.793311107074 7 9 8 1.7324495402 117 2031
38304 0.78147215723 1.49202157515 0.532922685815 26 24 9 1.54189918581 117 2218
38493 1.08862898751 1.52568791695 0.983152634197 84 80 75 0.76313581854 117 4950
38566 0.879650222431 1.0332577374 0.645133186796 6 7 4 1.17200952253 117 4505
38617 -8.75856438234 2.98828806298 -5.23343722957 94 106 60 0.550569433217 117 6543
38693 0.209336210913 0.564895695248 0.163301311507 103 119 67 0.087410056942 117 6715
38791 1.39039787656 1.68332629013 -0.600525758065 68 65 45 1.48865121603 117 8306
38813 0.228444512234 0.534950096965 -0.0310061540734 97 106 57 2.39489539354 155 7326
38827 -10.8624405314 1.77351637204 -8.38281400738 60 70 61 1.53377725781 78 4032
38832 -8.41014351324 2.62810269925 -11.7513473441 16 27 10 0.839016495167 78 7616
38845 -9.18511158278 2.61089982281 -10.4761840763 24 31 13 2.12732364403 78 4202
38871 -6.90633135632 3.42189890663 -11.7522463933 21 28 12 1.62802956543 78 7832
38889 -7.81067599372 2.95407890413 -8.34550132 60 68 52 1.02089447668 78 4560
39014 -7.70823681471 3.09141485792 -9.43540724605 25 33 13 1.29892192277 78 4522
39015 -7.86451673619 2.94943888448 -8.72344750068 48 57 42 0.639750192134 78 7871
39059 1.34101959853 1.61921008071 -0.566278138081 14 16 13 2.53192887872 117 4355
39125 1.34022115183 1.70916272493 -0.540273196766 6 6 4 2.06939549173 117 4397
39137 -8.93672623914 2.41104044995 -12.0163138026 19 25 13 1.25733385045 78 9697
39144 -8.42911176126 2.67046918799 -9.07804907722 17 23 9 1.85479938576 78 9865
39160 -7.46583566887 3.45094466024 -8.2056905598 5 6 0 1.3474144775 78 11139
39223 -8.68442577619 2.84829611287 -11.2191936097 14 18 12 1.61326713519 78 12359
39282 1.71930501204 1.99072316404 -1.19864746147 60 59 35 1.75614201816 117 5903
39283 1.05853444115 1.56474656915 0.833485425766 85 76 65 1.22516931215 155 6826 117 7105
39285 -9.46661638289 3.09547223812 -5.9740419166 7 10 1 0.733341179809 117 3524
39320 -14.3979801207 1.60782768729 -14.2307011622 106 120 92 1.13968493306 78 3503
39334 -18.5020870492 1.30096733107 -8.35151605347 97 105 92 1.07954862927 78 3958
39340 -10.357709116 1.657101272 -9.36716855361 25 33 15 1.96535264383 78 3851
39350 -9.33076392304 2.43055112868 -11.4838386369 25 31 21 1.07845002611 78 3993
39367 -8.32869487553 2.7541471976 -9.18922837151 11 17 5 1.2384715357 78 4421
39368 -8.40699319939 3.18072865031 -10.9323380893 8 14 4 1.06833543634 78 7829
39415 -8.78987155373 -0.714897601152 -10.1785243759 254 255 254 1.55469625797 78 6673
39417 -19.5623350001 0.0436318888373 -9.27635204431 31 33 20 1.29612010402 78 7285
39423 -14.6527867081 0.565465605127 -9.97556918933 27 28 12 0.912880985137 78 3407
39425 -14.6595862032 0.887389117163 -9.87492534975 23 25 11 0.889203891633 78 7340
39438 -8.73720925588 0.150828080567 -2.14935900174 70 69 65 1.05364037818 78 3743
39441 -12.9937541083 2.46757956889 -13.9330122848 15 20 13 2.19509640388 78 9682
39443 -9.42874656431 2.25763499412 -11.6368823018 25 33 17 0.966552572982 78 7523
39446 -8.57131593619 2.4414272579 -11.8908863978 22 30 15 1.01769937347 78 9707
39463 -6.70411294505 3.58267709523 -10.8343002054 87 95 82 0.94515988329 78 7892
39474 -7.41872919999 3.47362952953 -7.62927550349 52 63 29 1.02898722191 117 5350
39501 -8.49213186299 -1.10451972002 -2.23796070428 56 56 46 1.25827397777 78 2763
39514 -8.70621031098 0.335408381806 -2.13391730678 35 35 27 1.09803871697 78 7514
39517 -8.75179743653 0.542532133321 -1.97283227456 41 38 29 0.895387483016 78 7615
39538 -8.66576361467 -1.0038076258 -2.43244415026 14 15 9 1.32857331838 78 9364
39539 -8.70943610354 -0.93472318617 -2.41272868544 45 46 39 1.17148261766 78 9390
39540 -8.71115775395 -0.934247818011 -2.41338520387 45 46 39 1.04710342184 78 9391
39541 -8.76290497715 -0.90488825632 -2.36798996975 17 16 11 1.09223754613 78 9398
39542 -19.3174086303 0.168003401857 -9.28346214874 89 91 68 1.13825521562 78 9561
39549 -10.6865656157 1.47645581387 -10.0145257194 31 40 23 1.41843900958 78 9625
39574 -19.500193882 0.0345538604129 -9.03556720265 83 82 61 1.75011517476 78 11747
39577 -14.3762793926 1.54644352287 -14.2414082267 74 82 69 1.77847840004 78 11752
39580 -13.8922266302 2.23590234493 -14.4497985604 15 18 11 1.57404698148 78 11779
39598 0.696742270747 1.19772895311 -0.895911240941 127 127 76 0.913809435715 78 12465
39614 -14.2114965304 1.77072299204 -15.1404083768 14 16 11 1.28989504773 78 12301
39664 -11.4350455292 1.49032951219 -10.7960890537 74 84 62 1.73133288974 78 13259
39666 -10.9757895329 1.72687330557 -8.73670401164 34 40 32 0.933079776066 78 11003
39667 0.62881107885 0.850906785541 -1.01004242909 3 4 3 1.41224293728 117 8427
39669 -6.22363250138 2.93957954111 -9.96888073493 29 29 17 1.50680360056 78 11087
39702 -10.00345388 2.46463803925 -8.29902736769 9 14 3 1.25572888144 78 4385
39712 -8.23703070468 3.07449158346 -10.0665378788 80 91 83 0.869064638144 78 4461
39716 -6.83833295205 3.47701474838 -11.6296928674 12 18 8 0.467477022691 78 4473
39720 -7.81842425143 2.97126558581 -8.85790015295 10 18 3 0.635381178543 78 4530
39724 -6.18847395867 3.1404380728 -9.90405236521 66 71 49 1.13973386822 78 4508
39727 -6.84286809695 3.69211875461 -11.5818606356 30 36 24 0.755453955996 78 4551
39728 -6.85786578858 3.7018097976 -11.5091300018 5 10 3 1.30601184316 78 4561
39737 -7.58267587714 3.34675822417 -8.77597131552 43 51 42 0.954997136954 78 4645
39742 -7.27496704071 3.69657666745 -9.68535394587 9 12 5 0.632599891896 78 7935
39801 -8.18103328663 2.84806808673 -11.3595930854 9 14 7 1.68907939922 78 7701
39802 -8.35257954658 2.86767607364 -11.3632883135 45 50 42 0.869850528383 78 7706
39805 -7.05403521492 3.32340549785 -11.7445036324 24 34 9 1.37435963616 78 7820
39816 -7.48954179865 3.32343807696 -9.91709669948 17 26 7 0.977519129145 78 4557
39824 -7.68963912298 3.24097697001 -8.21980874735 3 5 1 1.50508360545 78 7925
39825 -7.69478799545 3.24320185827 -8.22390644649 3 5 1 1.55465035875 78 7924
39826 -6.41936524641 3.8775978469 -10.9045204234 58 66 53 1.85210197472 78 7926
39829 -7.4687268856 3.51522851663 -8.91656439798 43 54 38 0.434395663302 78 7936
39830 -7.59683439318 3.35716128861 -8.27399636478 16 23 8 0.621833383854 78 9939
39867 -9.09992811759 2.58983044798 -10.8109843984 15 23 12 0.825828377585 78 7679
39873 -8.56729158683 2.97966056 -10.3516068974 17 23 11 1.23347786562 78 9869
39916 -8.44969941225 3.07955797181 -10.2925013014 65 72 64 1.09593876619 78 11092
39920 -7.79048879996 2.87850906856 -9.0731689219 58 66 55 1.49024943363 78 11093
39984 -8.36838431961 3.17010498597 -11.1091681278 19 22 15 2.29350254314 78 13038
40004 1.05347195046 1.62585968855 0.527063409214 40 35 24 1.01023495019 155 2584 117 2408
40021 -8.58937990873 -1.08920140582 -2.36539525175 45 45 33 1.38879631505 78 2775
40029 -14.7216847339 0.931264236005 -10.0388693516 57 58 44 0.710233824382 78 3571
40032 -13.6530946727 2.04528238394 -13.8979683825 29 35 20 1.79723351602 78 7421
40048 -8.91351234994 2.48938039232 -11.9339502801 15 19 7 1.21487621619 78 3966
40051 -9.01577852793 2.57758308175 -11.4298974612 15 21 9 1.3253339995 78 4062
40057 -8.93767919537 2.6441156405 -11.0203179314 16 20 6 1.10994345713 78 7678
40059 -8.31033071341 2.76405227921 -11.4987350438 11 14 5 0.963558032003 78 4145
40060 -12.8560610066 2.02790669001 -7.0803246703 10 11 3 1.40998580004 78 4311
40062 -10.1850829567 2.3611552919 -8.07202327596 35 41 19 1.13372564554 78 7788
40063 -8.16053721799 3.15950711773 -11.3966931105 11 14 5 1.39433939731 78 4365
40070 -7.05906468515 3.37537898393 -11.6325631418 61 68 50 1.05274912945 78 4445
40081 -6.80686447581 3.67603897773 -11.5322657473 38 44 29 1.36170958254 78 4552
40085 -7.39131179011 3.3915256985 -9.49881570605 29 36 20 0.884151970857 78 4607
40097 -6.32828637097 3.58123825739 -9.65870105974 42 38 26 1.46581617063 78 4662
40099 -7.41827557051 3.4906290051 -8.79676802435 6 9 2 1.11308757596 78 4684 78 7941
40100 -7.41827557051 3.4906290051 -8.79676802435 6 9 2 1.11308757596 78 4685 78 7942
40105 -6.90387233951 3.82284211887 -9.73213073086 67 73 43 1.18326325401 78 7959
40125 -14.6438890066 0.496748540102 -9.96636934445 66 64 39 1.24208983236 78 3376
40126 -14.6549204312 0.886541405086 -9.87116856956 31 29 14 0.847628689608 78 7341
40129 -13.9174143082 2.27205743185 -14.0939686346 23 27 12 0.951857300134 78 7471
40130 -13.9147905569 2.27117799405 -14.0920945201 23 27 12 0.940273714701 78 7470
40131 -13.5681920896 2.28244443837 -14.0717684805 75 79 56 1.95216852319 78 7469
40135 -13.0414810725 2.3957733443 -13.5475377066 21 23 10 0.981327036375 78 3868
40139 -9.2708354831 2.33842306408 -11.9343918586 50 56 44 0.523931374919 78 7528
40140 -8.60476094286 2.56856892273 -12.0338073327 11 14 3 0.895307198588 78 3991
40141 -9.01588805319 2.58595735147 -10.9614967952 56 65 48 1.16614393694 78 7665
40142 -8.75776901815 0.343953387101 -2.01257313582 51 45 29 1.08701164285 78 7532
40145 -10.49153781 2.26122410855 -8.59697019676 8 11 4 1.35767477589 78 7724
40149 -8.43976566525 3.13881976676 -11.1496651354 9 10 3 0.823705864466 78 7803
40156 -7.93890593957 2.79169724023 -8.50764063638 16 23 7 1.40821600535 78 4491
40158 -6.68642544444 3.57617098148 -10.8127273699 84 88 74 1.11086929451 78 7891
40159 -7.56429758043 3.32201524148 -9.21227908959 8 10 5 0.588745705599 78 9922
40166 -7.40182964864 3.77819305023 -9.69714660552 4 7 0 0.834593390123 78 4710
40174 -5.7346795532 3.59598186746 -7.82777285404 95 102 48 1.30963422385 78 9975
40196 -14.3371470822 1.55560327012 -14.911795216 68 67 49 1.59756794216 78 9554
40197 -17.1745652715 0.846866828128 -10.7445139067 13 14 6 1.14050967508 78 7345
40201 -10.3780710652 1.72127503374 -9.20662105622 16 19 8 1.76414718201 78 7524
40206 -9.3713666415 2.6166346137 -10.7090284832 121 126 100 1.60680456505 78 4176
40214 -7.98206355936 2.91292710988 -8.73739223287 5 8 0 1.00371480516 78 9896
40215 -6.19632116225 3.2280008209 -9.89625151916 15 17 6 1.34674061124 78 11109
40221 -6.23346907144 3.70790771146 -8.42461180598 62 69 27 1.08932687297 78 7994
40240 -10.2129361888 2.27141141764 -9.39112811577 13 16 5 1.2342752931 78 11037
40281 -7.56188317574 3.45265143438 -8.86758449172 5 7 2 0.973592550521 78 11887
40283 -7.46517624596 3.34318472881 -8.40893242529 57 65 42 1.47635183473 78 11889
40307 -17.2173983639 0.773534545003 -10.789051359 20 21 13 2.02468082824 78 12305
